ply
format ascii 1.0
comment VCGLIB generated
element vertex 1769
property float x
property float y
property float z
property uchar red
property uchar green
property uchar blue
property uchar alpha
element face 0
property list uchar int vertex_indices
end_header
149 462 1766 38 54 80 255 
152 463 1768 42 56 85 255 
155 463 1769 42 56 85 255 
158 464 1771 45 59 88 255 
161 464 1772 41 55 84 255 
164 464 1774 42 57 86 255 
167 465 1775 41 56 85 255 
170 465 1777 39 54 83 255 
173 466 1779 37 52 81 255 
176 466 1781 48 63 94 255 
179 466 1782 52 67 98 255 
183 467 1784 58 72 101 255 
186 467 1785 58 72 101 255 
189 468 1787 54 68 97 255 
192 468 1788 53 67 96 255 
195 468 1790 55 71 97 255 
198 469 1791 58 74 100 255 
-76 475 1801 48 65 95 255 
-73 474 1798 53 70 96 255 
-70 473 1796 49 66 92 255 
-67 472 1793 46 62 88 255 
-64 472 1790 50 66 92 255 
-61 471 1788 48 62 91 255 
-58 471 1786 55 69 98 255 
-55 470 1783 58 72 99 255 
-52 469 1781 57 71 98 255 
-49 469 1778 58 73 102 255 
-46 468 1777 54 69 98 255 
-44 468 1776 57 73 99 255 
-41 467 1774 55 71 97 255 
-38 467 1774 51 65 92 255 
-35 467 1772 53 67 94 255 
-32 467 1772 54 70 96 255 
-29 467 1773 52 68 94 255 
-26 467 1773 44 60 86 255 
-23 468 1774 43 59 85 255 
-20 468 1775 39 54 77 255 
-18 468 1777 37 52 75 255 
-15 469 1778 39 54 77 255 
-12 469 1780 39 54 77 255 
-9 470 1782 36 52 75 255 
-6 470 1785 37 53 76 255 
-3 471 1787 33 49 75 255 
0 471 1789 34 50 76 255 
3 472 1792 32 48 73 255 
6 473 1795 29 45 70 255 
9 474 1799 31 47 73 255 
12 475 1802 31 47 73 255 
15 476 1806 30 46 71 255 
17 477 1810 30 46 71 255 
20 478 1814 35 50 73 255 
24 479 1819 37 52 75 255 
27 480 1823 38 53 72 255 
30 481 1826 39 54 73 255 
33 482 1830 40 55 76 255 
36 483 1833 40 55 76 255 
39 484 1835 38 53 76 255 
42 484 1838 36 51 74 255 
45 485 1841 33 45 67 255 
48 486 1844 22 34 56 255 
51 487 1848 79 95 129 255 
54 488 1851 120 136 170 255 
57 488 1853 116 137 182 255 
60 489 1856 110 131 176 255 
63 490 1861 111 129 177 255 
66 490 1860 117 135 183 255 
69 489 1856 92 106 143 255 
72 488 1851 42 56 93 255 
75 487 1847 40 50 77 255 
78 486 1843 38 48 75 255 
81 485 1839 36 46 71 255 
83 483 1834 38 48 73 255 
86 482 1829 39 53 79 255 
89 481 1824 43 57 83 255 
91 479 1817 53 67 94 255 
94 477 1809 45 59 86 255 
96 474 1799 47 63 89 255 
99 472 1792 54 70 96 255 
102 471 1786 59 75 101 255 
104 469 1780 60 76 102 255 
107 468 1775 56 70 96 255 
109 467 1771 55 69 95 255 
112 466 1768 54 68 94 255 
115 465 1766 51 65 91 255 
117 465 1764 45 61 87 255 
120 464 1763 44 60 86 255 
123 464 1761 46 62 88 255 
126 464 1761 44 60 86 255 
129 464 1762 40 56 81 255 
132 464 1762 39 55 80 255 
135 464 1763 33 51 75 255 
137 464 1763 36 54 78 255 
140 465 1764 36 53 79 255 
143 465 1765 35 52 78 255 
146 465 1766 36 53 79 255 
149 465 1767 35 52 78 255 
152 466 1769 33 49 75 255 
155 466 1770 33 49 75 255 
158 467 1772 38 54 80 255 
161 467 1773 34 50 76 255 
164 467 1775 36 52 78 255 
167 468 1776 35 51 77 255 
170 468 1778 33 49 75 255 
173 468 1779 39 55 81 255 
176 469 1781 42 58 84 255 
180 470 1783 43 59 85 255 
183 470 1784 53 65 89 255 
186 470 1785 49 61 85 255 
189 471 1787 48 62 88 255 
192 471 1788 49 63 89 255 
195 471 1790 47 64 90 255 
198 472 1791 49 66 92 255 
-76 478 1802 47 64 94 255 
-73 477 1799 51 66 95 255 
-70 476 1796 48 63 92 255 
-67 475 1793 46 61 90 255 
-64 475 1791 50 65 94 255 
-61 474 1789 48 62 91 255 
-58 474 1787 54 68 97 255 
-55 473 1784 54 68 97 255 
-52 472 1782 53 67 96 255 
-49 472 1780 55 70 99 255 
-46 471 1778 53 68 97 255 
-44 471 1777 56 72 98 255 
-41 471 1776 57 73 99 255 
-38 471 1775 51 67 93 255 
-35 470 1774 51 67 93 255 
-32 471 1775 52 68 94 255 
-29 471 1775 46 62 88 255 
-26 471 1776 43 59 85 255 
-23 471 1777 46 62 88 255 
-20 471 1778 44 58 84 255 
-18 472 1780 41 55 81 255 
-15 472 1781 42 57 80 255 
-12 473 1783 40 55 78 255 
-9 474 1786 36 52 77 255 
-6 474 1789 37 53 78 255 
-3 475 1791 34 50 76 255 
0 475 1793 36 52 78 255 
3 476 1796 32 48 73 255 
6 477 1799 28 44 69 255 
9 478 1802 29 45 70 255 
12 479 1805 31 47 72 255 
15 480 1809 30 46 71 255 
18 481 1813 30 46 71 255 
21 482 1817 29 45 70 255 
24 483 1821 28 44 69 255 
27 484 1825 30 45 66 255 
30 485 1828 32 47 68 255 
33 486 1832 33 48 69 255 
36 486 1834 34 49 70 255 
39 487 1837 33 48 71 255 
42 488 1840 30 45 68 255 
45 488 1842 22 37 58 255 
48 489 1845 23 38 59 255 
51 490 1849 49 65 98 255 
54 491 1853 130 146 179 255 
57 492 1856 116 137 182 255 
60 493 1858 109 130 175 255 
63 493 1861 113 131 177 255 
66 493 1860 118 136 182 255 
69 493 1858 98 114 150 255 
72 492 1854 43 59 95 255 
75 490 1850 37 48 76 255 
78 489 1846 33 44 72 255 
81 488 1842 32 44 68 255 
84 487 1838 33 45 69 255 
86 486 1833 32 46 72 255 
89 485 1828 34 48 74 255 
92 483 1822 49 63 90 255 
94 481 1813 51 65 92 255 
97 478 1804 54 70 96 255 
99 476 1797 52 68 94 255 
102 474 1790 49 65 91 255 
104 473 1784 45 61 87 255 
107 472 1779 40 56 81 255 
109 470 1774 37 53 78 255 
112 469 1771 36 52 77 255 
115 469 1768 37 53 78 255 
118 468 1766 37 53 79 255 
120 468 1765 37 53 79 255 
123 468 1764 38 54 80 255 
126 467 1763 37 53 79 255 
129 467 1763 36 52 77 255 
132 468 1764 37 53 78 255 
135 468 1764 36 52 77 255 
138 468 1765 39 55 80 255 
141 468 1766 39 55 80 255 
144 468 1767 38 54 79 255 
146 469 1768 39 55 80 255 
149 469 1769 36 52 77 255 
152 469 1770 33 49 74 255 
155 469 1771 33 49 74 255 
158 470 1773 33 49 75 255 
161 470 1774 32 48 74 255 
164 471 1776 32 48 74 255 
167 471 1777 30 46 72 255 
170 471 1779 27 43 69 255 
173 472 1780 30 46 72 255 
177 472 1782 33 49 75 255 
180 472 1783 34 50 76 255 
183 473 1785 35 47 71 255 
186 473 1786 38 50 74 255 
189 473 1787 37 51 77 255 
192 474 1788 41 55 81 255 
195 474 1790 39 55 81 255 
198 474 1791 40 56 82 255 
-80 482 1808 53 70 100 255 
-76 481 1803 50 67 97 255 
-73 480 1800 53 68 97 255 
-70 479 1797 52 67 96 255 
-67 478 1794 53 68 97 255 
-64 478 1792 55 70 99 255 
-61 477 1790 54 68 97 255 
-58 477 1788 56 70 99 255 
-55 476 1786 55 69 98 255 
-52 476 1784 53 67 96 255 
-49 475 1781 55 70 101 255 
-47 475 1780 54 69 100 255 
-44 475 1779 57 72 101 255 
-41 474 1778 60 75 104 255 
-38 474 1777 55 70 99 255 
-35 474 1777 53 68 97 255 
-32 474 1777 53 68 97 255 
-29 474 1777 45 60 89 255 
-26 474 1778 46 61 90 255 
-23 475 1780 52 67 96 255 
-20 475 1781 53 67 94 255 
-18 475 1782 49 63 90 255 
-15 476 1784 49 63 90 255 
-12 476 1786 47 61 88 255 
-9 477 1788 42 58 84 255 
-6 478 1791 40 56 82 255 
-3 478 1793 39 55 81 255 
0 479 1796 40 56 82 255 
3 480 1798 36 52 77 255 
6 480 1801 33 49 74 255 
9 481 1804 34 50 73 255 
12 482 1807 35 51 74 255 
15 483 1811 34 50 75 255 
18 484 1814 32 48 73 255 
21 485 1818 30 46 71 255 
24 486 1823 27 43 68 255 
27 487 1826 26 42 67 255 
30 488 1830 27 43 68 255 
33 489 1833 27 43 66 255 
36 490 1836 28 44 67 255 
39 491 1839 27 43 66 255 
42 491 1841 25 41 64 255 
45 492 1844 23 38 59 255 
48 493 1847 27 42 63 255 
51 493 1850 30 46 79 255 
54 495 1854 130 146 179 255 
57 496 1858 116 135 178 255 
60 496 1860 111 130 173 255 
63 497 1863 117 135 181 255 
66 496 1860 118 136 182 255 
69 496 1859 106 122 158 255 
72 495 1856 49 65 101 255 
75 494 1852 39 53 80 255 
78 493 1848 33 47 74 255 
81 492 1844 31 46 69 255 
84 491 1840 30 45 68 255 
86 489 1835 26 40 66 255 
89 488 1830 26 40 66 255 
92 487 1825 36 50 77 255 
94 485 1818 44 58 85 255 
97 482 1809 51 67 93 255 
99 481 1802 51 67 93 255 
102 479 1795 45 61 87 255 
105 477 1789 39 55 81 255 
107 475 1783 38 54 80 255 
110 474 1778 36 52 78 255 
112 473 1774 36 52 77 255 
115 472 1771 38 54 79 255 
118 471 1768 39 55 81 255 
121 471 1767 40 56 82 255 
123 471 1766 41 57 83 255 
126 471 1765 41 57 83 255 
129 471 1765 42 58 83 255 
132 471 1765 45 61 86 255 
135 471 1766 45 61 84 255 
138 471 1766 45 61 84 255 
141 471 1767 44 60 83 255 
144 471 1768 42 58 81 255 
147 472 1769 40 56 79 255 
150 472 1770 37 53 76 255 
152 472 1771 35 51 76 255 
155 472 1772 35 51 76 255 
158 473 1774 37 53 78 255 
161 473 1775 38 54 79 255 
165 474 1777 37 53 78 255 
168 474 1778 34 50 75 255 
171 474 1780 32 48 74 255 
174 475 1781 33 49 75 255 
177 475 1782 36 52 78 255 
180 475 1783 35 51 77 255 
183 476 1785 40 52 78 255 
186 476 1786 46 58 84 255 
189 476 1787 42 56 82 255 
192 477 1789 45 59 85 255 
195 477 1790 42 58 84 255 
198 478 1792 41 57 83 255 
-83 489 1822 58 74 110 255 
-80 486 1810 52 69 99 255 
-77 484 1805 52 69 99 255 
-73 483 1801 56 73 101 255 
-70 482 1798 58 75 103 255 
-67 482 1796 60 75 104 255 
-64 481 1793 61 76 105 255 
-61 481 1791 59 74 103 255 
-58 480 1789 59 74 103 255 
-55 480 1787 58 73 104 255 
-52 479 1786 56 71 102 255 
-49 478 1783 56 71 102 255 
-47 478 1782 57 72 103 255 
-44 478 1781 57 72 103 255 
-41 478 1780 59 74 105 255 
-38 478 1780 56 71 102 255 
-35 477 1779 54 69 100 255 
-32 477 1779 56 71 102 255 
-29 478 1780 50 65 96 255 
-26 478 1781 49 64 95 255 
-23 478 1782 54 69 100 255 
-20 479 1784 56 71 100 255 
-18 479 1785 53 68 97 255 
-15 480 1787 53 67 96 255 
-12 480 1788 52 66 95 255 
-9 480 1790 48 63 92 255 
-6 481 1793 45 60 89 255 
-3 482 1795 45 59 85 255 
0 482 1797 45 59 85 255 
3 483 1800 42 57 80 255 
6 484 1803 39 54 77 255 
9 485 1806 40 55 78 255 
12 485 1809 42 57 80 255 
15 486 1812 39 54 77 255 
18 487 1815 35 50 73 255 
21 488 1820 35 49 75 255 
24 489 1824 32 46 72 255 
27 491 1828 30 44 70 255 
30 491 1831 29 43 69 255 
33 492 1835 27 41 67 255 
36 493 1838 26 40 66 255 
39 494 1840 25 40 63 255 
42 495 1843 24 39 62 255 
45 495 1846 23 38 59 255 
48 496 1848 21 36 57 255 
51 497 1852 31 48 78 255 
54 498 1855 116 133 163 255 
57 499 1859 112 131 173 255 
60 500 1862 114 133 175 255 
64 500 1865 120 139 182 255 
66 500 1862 116 135 178 255 
69 499 1860 92 107 146 255 
72 498 1857 44 59 98 255 
75 497 1854 37 52 81 255 
78 496 1850 35 50 79 255 
81 495 1846 34 48 74 255 
84 494 1842 29 43 69 255 
86 493 1837 26 41 64 255 
89 492 1832 28 43 66 255 
92 490 1827 26 40 66 255 
95 489 1821 32 46 72 255 
97 487 1814 40 54 81 255 
100 485 1807 49 63 90 255 
102 483 1801 47 63 88 255 
105 481 1794 41 57 82 255 
107 480 1788 43 57 83 255 
110 478 1782 45 59 85 255 
113 477 1778 45 61 86 255 
115 476 1775 46 62 87 255 
118 475 1772 47 63 88 255 
121 475 1770 47 63 88 255 
123 474 1768 47 63 88 255 
126 474 1767 46 62 87 255 
129 474 1767 47 63 88 255 
132 474 1767 51 67 92 255 
135 474 1767 53 68 89 255 
138 474 1767 49 64 85 255 
141 474 1768 49 64 85 255 
144 474 1768 48 63 84 255 
147 474 1769 44 59 80 255 
149 475 1770 43 58 79 255 
152 475 1771 45 60 83 255 
155 475 1772 43 58 81 255 
158 476 1774 43 58 81 255 
161 476 1775 44 59 82 255 
165 477 1777 41 57 82 255 
167 477 1778 40 56 81 255 
171 477 1780 38 54 79 255 
174 478 1781 40 56 81 255 
177 478 1782 44 60 85 255 
180 478 1783 42 58 83 255 
183 479 1785 40 54 80 255 
186 479 1786 44 58 84 255 
189 479 1788 41 57 80 255 
192 480 1789 44 60 83 255 
195 480 1790 45 63 87 255 
198 480 1792 49 67 91 255 
-87 496 1836 64 82 118 255 
-83 492 1824 57 75 111 255 
-80 489 1811 52 68 101 255 
-77 487 1806 52 68 101 255 
-73 486 1802 59 76 104 255 
-70 486 1799 60 77 105 255 
-67 485 1796 61 78 106 255 
-64 484 1794 59 76 104 255 
-61 484 1792 61 76 105 255 
-58 483 1790 59 74 103 255 
-55 483 1788 58 73 104 255 
-52 482 1787 57 72 103 255 
-50 482 1785 58 73 104 255 
-47 482 1784 58 73 104 255 
-44 481 1783 55 70 101 255 
-41 481 1782 56 71 102 255 
-38 481 1782 56 71 102 255 
-35 481 1781 55 70 101 255 
-32 481 1782 57 72 103 255 
-29 481 1782 52 67 98 255 
-26 481 1783 48 63 92 255 
-23 482 1785 51 66 95 255 
-21 482 1786 53 68 97 255 
-18 483 1788 50 65 94 255 
-15 483 1789 48 63 92 255 
-12 484 1791 50 65 94 255 
-9 484 1793 50 65 94 255 
-6 485 1795 46 61 90 255 
-3 485 1797 48 63 86 255 
0 486 1799 47 62 85 255 
3 486 1802 45 60 81 255 
6 487 1804 42 57 78 255 
9 488 1807 42 57 78 255 
12 489 1810 43 58 79 255 
15 489 1813 41 56 77 255 
18 490 1816 36 51 72 255 
21 492 1821 36 51 74 255 
24 493 1825 34 49 72 255 
27 494 1829 31 45 71 255 
30 495 1833 29 43 69 255 
33 496 1836 27 42 65 255 
36 496 1839 24 39 62 255 
39 497 1842 22 37 58 255 
42 498 1844 22 37 58 255 
45 499 1847 23 35 57 255 
48 499 1850 16 28 50 255 
51 500 1853 42 57 88 255 
54 501 1857 111 126 157 255 
57 502 1860 109 126 169 255 
60 503 1863 112 129 172 255 
64 504 1867 116 133 177 255 
67 503 1865 109 126 170 255 
69 503 1862 70 86 122 255 
72 502 1858 33 49 85 255 
75 501 1855 33 47 76 255 
78 500 1851 33 47 76 255 
81 499 1847 36 48 72 255 
84 497 1843 30 42 66 255 
87 496 1839 26 38 62 255 
89 495 1834 30 42 66 255 
92 494 1829 26 40 66 255 
95 492 1824 25 39 65 255 
97 491 1818 29 41 67 255 
100 489 1812 40 52 78 255 
103 487 1806 45 60 83 255 
105 486 1800 45 60 83 255 
108 484 1793 47 61 87 255 
110 482 1787 48 62 88 255 
113 481 1782 52 67 90 255 
116 480 1779 55 70 93 255 
118 479 1776 55 70 93 255 
121 478 1773 54 69 92 255 
124 478 1771 55 70 93 255 
126 478 1770 53 68 91 255 
129 477 1769 52 67 90 255 
132 477 1768 55 70 93 255 
135 477 1768 55 70 89 255 
138 477 1768 49 64 83 255 
141 477 1769 50 65 84 255 
144 477 1769 52 67 86 255 
147 477 1769 49 64 85 255 
149 478 1770 52 67 88 255 
152 478 1771 55 70 91 255 
155 478 1772 51 66 87 255 
158 479 1774 49 64 87 255 
161 479 1775 48 63 86 255 
164 479 1777 46 61 84 255 
167 480 1778 45 60 83 255 
171 480 1780 41 56 79 255 
174 480 1781 44 59 82 255 
177 481 1782 53 68 91 255 
180 481 1783 53 68 91 255 
183 481 1784 42 58 83 255 
186 482 1786 45 61 86 255 
189 482 1787 48 64 87 255 
192 483 1789 52 68 91 255 
195 483 1790 56 74 98 255 
198 483 1792 61 79 103 255 
-87 500 1843 75 93 129 255 
-83 496 1826 57 75 111 255 
-80 492 1813 53 72 104 255 
-77 491 1808 50 69 101 255 
-74 490 1804 60 77 107 255 
-70 489 1800 61 78 108 255 
-67 488 1798 60 77 105 255 
-64 488 1796 58 75 103 255 
-61 487 1793 60 77 105 255 
-58 486 1791 58 75 103 255 
-55 486 1790 57 72 103 255 
-53 486 1788 57 72 103 255 
-50 485 1787 58 73 102 255 
-47 485 1786 58 73 102 255 
-44 485 1785 54 71 99 255 
-41 484 1784 56 73 101 255 
-38 485 1785 58 75 103 255 
-35 484 1784 56 73 101 255 
-32 485 1785 54 70 96 255 
-29 485 1785 50 66 92 255 
-26 485 1786 47 63 89 255 
-23 485 1787 48 64 90 255 
-21 486 1789 51 67 93 255 
-18 486 1790 49 65 91 255 
-15 487 1792 44 60 86 255 
-12 487 1793 46 62 88 255 
-9 487 1795 49 65 90 255 
-6 488 1797 47 63 88 255 
-3 488 1798 52 64 88 255 
0 489 1801 52 64 88 255 
3 490 1803 52 64 88 255 
6 490 1806 49 61 85 255 
9 491 1808 47 59 81 255 
12 492 1811 46 58 80 255 
15 493 1814 44 56 78 255 
18 493 1817 39 51 73 255 
21 495 1821 37 49 71 255 
24 496 1826 37 49 71 255 
27 497 1829 35 47 71 255 
30 498 1833 32 44 68 255 
33 499 1837 31 43 65 255 
36 500 1840 27 39 61 255 
39 500 1843 25 37 59 255 
42 501 1846 25 37 59 255 
45 502 1848 21 33 55 255 
48 503 1851 19 31 53 255 
51 504 1855 47 63 96 255 
54 505 1858 117 133 166 255 
57 505 1861 107 126 169 255 
60 506 1864 109 128 171 255 
64 507 1867 110 129 172 255 
67 506 1865 104 123 166 255 
69 506 1862 58 72 109 255 
72 505 1859 32 46 83 255 
75 504 1855 34 45 73 255 
78 503 1852 36 47 75 255 
81 502 1848 38 50 74 255 
84 501 1844 31 43 67 255 
87 500 1840 29 41 65 255 
89 499 1836 31 43 67 255 
92 497 1831 30 42 66 255 
95 496 1826 27 39 63 255 
98 494 1820 23 35 59 255 
100 493 1815 27 39 63 255 
103 491 1810 38 50 74 255 
105 490 1804 47 59 83 255 
108 488 1799 50 65 88 255 
111 487 1792 50 65 88 255 
113 485 1787 54 69 92 255 
116 484 1783 59 74 97 255 
118 483 1779 60 75 96 255 
121 482 1776 59 74 95 255 
124 482 1774 60 75 96 255 
127 481 1771 58 73 94 255 
129 481 1771 57 72 95 255 
132 480 1770 62 77 100 255 
135 480 1769 63 75 97 255 
138 480 1769 58 70 92 255 
141 480 1769 57 69 91 255 
144 480 1769 58 70 92 255 
147 480 1770 54 69 90 255 
149 480 1770 56 71 92 255 
152 481 1771 56 71 92 255 
155 481 1772 53 68 89 255 
158 481 1774 54 69 92 255 
161 482 1775 53 68 91 255 
164 482 1776 53 68 91 255 
167 483 1778 52 67 90 255 
170 483 1779 45 60 83 255 
173 483 1780 47 62 85 255 
177 484 1782 56 71 94 255 
180 484 1783 60 75 98 255 
183 484 1784 51 67 93 255 
186 484 1785 53 69 95 255 
189 485 1787 59 75 98 255 
192 485 1789 61 77 100 255 
195 486 1791 60 78 102 255 
198 486 1793 61 79 103 255 
-88 506 1853 81 99 135 255 
-84 500 1832 53 71 107 255 
-80 496 1815 54 73 105 255 
-77 494 1810 52 71 103 255 
-74 493 1805 61 78 108 255 
-71 492 1802 62 79 109 255 
-67 492 1800 64 79 108 255 
-64 491 1797 60 75 104 255 
-61 490 1795 63 78 107 255 
-58 490 1793 58 73 102 255 
-56 489 1791 58 73 104 255 
-53 489 1790 60 75 106 255 
-50 488 1788 59 74 103 255 
-47 488 1788 56 71 100 255 
-44 488 1787 54 71 99 255 
-41 488 1786 56 73 101 255 
-38 488 1787 58 75 103 255 
-35 488 1787 55 72 100 255 
-32 488 1787 52 68 94 255 
-29 488 1788 49 65 91 255 
-26 488 1788 46 62 88 255 
-23 489 1790 47 63 89 255 
-21 490 1792 51 67 93 255 
-18 490 1793 50 66 92 255 
-15 490 1794 45 61 86 255 
-12 490 1795 46 62 87 255 
-9 491 1797 50 66 91 255 
-6 491 1799 49 65 90 255 
-3 492 1800 51 66 89 255 
0 492 1802 50 65 88 255 
3 493 1804 51 65 91 255 
6 494 1807 50 64 90 255 
9 494 1810 47 61 87 255 
12 495 1812 46 60 86 255 
15 496 1815 46 58 80 255 
18 497 1818 41 53 75 255 
21 498 1822 37 49 71 255 
24 499 1826 39 51 73 255 
27 500 1830 39 51 73 255 
30 501 1834 36 48 70 255 
33 502 1837 33 45 67 255 
36 503 1841 30 42 64 255 
39 504 1844 28 41 60 255 
42 505 1847 28 41 60 255 
45 505 1849 21 34 53 255 
48 506 1852 22 35 54 255 
51 507 1856 51 67 100 255 
54 508 1860 119 135 168 255 
57 509 1863 108 129 172 255 
60 509 1865 109 130 173 255 
64 510 1868 113 131 177 255 
67 510 1866 107 125 171 255 
69 509 1862 53 67 104 255 
72 508 1859 33 47 84 255 
75 507 1856 35 47 73 255 
78 506 1852 37 49 75 255 
81 505 1849 40 52 76 255 
84 504 1845 34 46 70 255 
87 503 1841 34 49 72 255 
89 502 1837 34 49 72 255 
92 501 1833 33 45 71 255 
95 499 1828 29 41 67 255 
98 498 1823 25 37 61 255 
100 497 1818 25 37 61 255 
103 495 1814 30 42 66 255 
106 494 1808 37 49 73 255 
108 492 1803 41 56 79 255 
111 491 1798 47 62 85 255 
114 490 1793 50 65 88 255 
116 488 1788 56 71 94 255 
119 487 1784 60 72 94 255 
121 486 1780 59 71 93 255 
124 485 1776 59 74 95 255 
127 484 1774 58 73 94 255 
129 484 1772 58 73 96 255 
132 484 1771 61 76 99 255 
135 484 1771 66 81 104 255 
138 483 1770 66 81 104 255 
141 483 1770 65 80 103 255 
144 483 1769 63 78 101 255 
147 483 1770 64 76 100 255 
150 484 1771 62 74 98 255 
152 484 1771 59 71 95 255 
155 484 1772 58 70 94 255 
158 484 1773 57 69 93 255 
161 485 1775 56 68 92 255 
164 485 1776 60 72 98 255 
167 485 1777 59 71 97 255 
170 486 1779 54 66 92 255 
173 486 1780 53 65 91 255 
176 486 1781 59 71 97 255 
179 486 1782 65 77 103 255 
182 487 1783 62 76 105 255 
185 487 1785 63 77 106 255 
189 488 1787 66 80 106 255 
192 488 1788 68 82 108 255 
195 489 1791 61 77 103 255 
198 490 1794 59 75 101 255 
-88 511 1859 92 110 146 255 
-84 505 1840 52 70 106 255 
-80 500 1819 55 71 104 255 
-77 498 1812 53 69 102 255 
-74 496 1807 59 76 106 255 
-71 496 1804 63 80 110 255 
-68 495 1801 66 82 108 255 
-65 494 1799 62 78 104 255 
-62 494 1797 65 79 108 255 
-59 493 1794 58 72 101 255 
-56 493 1793 59 72 104 255 
-53 492 1791 63 76 108 255 
-50 492 1790 58 73 104 255 
-47 492 1790 54 69 100 255 
-44 492 1789 51 68 98 255 
-41 491 1788 52 69 99 255 
-38 492 1789 53 70 100 255 
-35 492 1789 51 68 98 255 
-32 492 1790 49 64 93 255 
-29 492 1790 49 64 93 255 
-26 492 1791 45 61 87 255 
-23 492 1792 46 62 88 255 
-21 493 1794 50 66 92 255 
-18 493 1795 50 66 92 255 
-15 493 1796 46 62 88 255 
-12 494 1797 46 62 88 255 
-9 494 1799 49 65 90 255 
-6 495 1800 50 66 91 255 
-3 495 1802 51 66 89 255 
0 495 1803 48 63 86 255 
3 496 1805 48 62 88 255 
6 497 1808 48 62 88 255 
9 498 1811 46 60 87 255 
12 498 1813 46 60 87 255 
15 499 1816 45 60 83 255 
18 500 1819 40 55 78 255 
21 501 1823 38 50 72 255 
24 502 1827 41 53 75 255 
27 503 1831 43 56 75 255 
30 504 1835 40 53 72 255 
33 505 1838 34 46 68 255 
36 506 1841 30 42 64 255 
39 507 1845 28 41 60 255 
42 508 1848 28 41 60 255 
45 508 1850 22 37 56 255 
48 509 1853 23 38 57 255 
51 510 1857 54 73 105 255 
54 511 1860 111 130 162 255 
57 512 1863 107 130 174 255 
61 513 1866 110 133 177 255 
64 513 1868 111 132 177 255 
67 513 1866 103 124 169 255 
70 512 1863 52 66 101 255 
72 511 1859 35 49 84 255 
75 510 1856 34 46 72 255 
78 509 1853 33 45 71 255 
81 508 1849 34 46 68 255 
84 507 1846 30 42 64 255 
87 506 1842 34 49 72 255 
89 505 1838 34 49 72 255 
92 504 1834 29 43 69 255 
95 503 1830 25 39 65 255 
98 501 1825 27 39 63 255 
101 500 1821 28 40 64 255 
103 499 1816 27 39 63 255 
106 498 1812 26 38 62 255 
109 496 1807 28 43 66 255 
111 495 1802 41 56 79 255 
114 494 1798 46 61 84 255 
116 493 1793 53 68 91 255 
119 491 1788 56 71 92 255 
122 490 1784 57 72 93 255 
124 489 1780 58 73 94 255 
127 488 1777 58 73 94 255 
130 488 1775 55 71 94 255 
132 487 1773 55 71 94 255 
135 487 1772 61 75 101 255 
138 486 1771 70 84 110 255 
141 486 1771 71 85 111 255 
144 486 1770 69 83 109 255 
147 486 1770 73 85 111 255 
150 486 1771 68 80 106 255 
152 486 1771 63 75 101 255 
155 487 1772 67 79 105 255 
158 487 1773 62 74 100 255 
161 487 1775 59 71 97 255 
164 488 1776 63 75 101 255 
167 488 1777 65 77 103 255 
170 488 1778 62 74 100 255 
173 488 1779 61 73 99 255 
176 489 1780 64 76 102 255 
179 489 1782 70 82 108 255 
182 490 1783 66 80 109 255 
185 490 1784 67 81 110 255 
188 490 1786 64 78 104 255 
192 491 1788 68 82 108 255 
195 491 1790 59 75 101 255 
198 492 1793 57 73 99 255 
-88 514 1859 94 113 146 255 
-84 509 1843 49 68 101 255 
-80 504 1823 52 71 103 255 
-77 501 1814 59 78 110 255 
-74 500 1809 63 80 110 255 
-71 499 1806 62 79 109 255 
-68 498 1803 64 81 109 255 
-65 498 1801 65 82 110 255 
-62 497 1798 64 79 110 255 
-59 496 1796 57 72 103 255 
-56 496 1794 59 74 107 255 
-53 496 1793 59 74 107 255 
-50 495 1792 55 68 100 255 
-47 495 1792 55 68 100 255 
-44 495 1791 53 67 96 255 
-41 495 1791 53 67 96 255 
-38 495 1791 52 66 95 255 
-35 495 1791 51 65 94 255 
-32 495 1792 51 65 94 255 
-29 495 1792 50 64 93 255 
-26 496 1793 46 60 89 255 
-24 496 1794 44 58 87 255 
-21 496 1795 47 61 88 255 
-18 497 1797 49 63 90 255 
-15 497 1798 45 59 85 255 
-12 497 1799 43 57 83 255 
-9 497 1800 44 58 85 255 
-6 498 1802 43 57 84 255 
-3 498 1803 43 57 83 255 
0 499 1805 45 59 85 255 
3 499 1807 46 61 84 255 
6 500 1809 44 59 82 255 
9 501 1812 43 58 81 255 
12 502 1815 42 57 80 255 
15 502 1817 43 58 81 255 
18 503 1820 48 63 86 255 
21 504 1824 45 60 83 255 
24 505 1828 44 59 82 255 
27 506 1832 41 56 77 255 
30 507 1836 37 52 73 255 
33 508 1839 34 49 70 255 
36 509 1842 30 45 66 255 
39 510 1846 27 42 63 255 
42 511 1849 29 44 65 255 
45 512 1851 24 38 64 255 
48 512 1854 18 32 58 255 
51 513 1857 53 70 100 255 
54 514 1860 111 128 158 255 
57 515 1864 111 131 166 255 
60 515 1865 113 133 168 255 
64 516 1867 107 129 168 255 
67 516 1866 108 130 169 255 
70 515 1863 63 79 113 255 
72 514 1859 31 47 81 255 
75 513 1856 24 35 63 255 
78 512 1853 32 43 71 255 
81 511 1849 31 43 69 255 
84 510 1846 28 40 66 255 
87 509 1842 26 40 66 255 
90 508 1839 28 42 68 255 
92 507 1835 29 45 70 255 
95 506 1831 27 43 68 255 
98 505 1827 28 42 68 255 
101 503 1822 28 42 68 255 
103 503 1819 31 43 69 255 
106 502 1815 29 41 67 255 
109 500 1811 27 41 67 255 
111 499 1806 33 47 73 255 
114 498 1802 40 54 80 255 
117 497 1798 48 62 88 255 
119 495 1793 55 71 96 255 
122 494 1789 57 73 98 255 
125 493 1785 58 72 98 255 
127 492 1781 56 70 96 255 
130 491 1779 57 69 95 255 
133 491 1777 58 70 96 255 
135 490 1774 59 74 97 255 
138 490 1773 69 84 107 255 
141 490 1772 71 86 109 255 
144 490 1772 69 84 107 255 
147 489 1771 66 81 104 255 
150 489 1771 71 86 109 255 
152 489 1771 74 88 114 255 
155 489 1772 73 87 113 255 
158 490 1774 66 80 106 255 
161 490 1775 62 76 102 255 
164 490 1775 66 78 104 255 
167 491 1776 69 81 107 255 
170 491 1778 72 84 110 255 
173 491 1779 71 83 109 255 
176 492 1780 68 82 109 255 
179 492 1781 70 84 111 255 
182 492 1782 68 81 100 255 
185 493 1784 68 81 100 255 
188 493 1786 66 81 100 255 
192 494 1788 65 80 99 255 
195 495 1792 57 74 102 255 
198 496 1796 64 81 109 255 
202 497 1799 96 117 162 255 
-88 516 1858 99 117 153 255 
-84 512 1842 59 77 113 255 
-80 507 1826 61 77 110 255 
-77 505 1817 63 79 112 255 
-74 504 1812 62 79 109 255 
-71 503 1808 61 78 108 255 
-68 502 1805 63 80 108 255 
-65 501 1802 65 82 110 255 
-62 500 1800 66 83 113 255 
-59 499 1797 61 78 108 255 
-56 499 1796 62 77 110 255 
-53 499 1795 59 74 107 255 
-50 499 1794 55 69 98 255 
-47 499 1794 56 70 99 255 
-44 498 1793 52 66 95 255 
-41 498 1793 50 64 93 255 
-38 498 1793 50 64 91 255 
-35 498 1793 49 63 90 255 
-32 498 1793 49 63 92 255 
-29 499 1794 50 64 93 255 
-26 499 1795 42 56 83 255 
-24 499 1796 41 55 82 255 
-21 500 1797 42 56 82 255 
-18 500 1798 43 57 83 255 
-15 500 1799 41 55 81 255 
-12 500 1800 40 54 80 255 
-9 501 1802 42 56 83 255 
-6 501 1803 44 58 85 255 
-3 501 1804 40 56 81 255 
0 502 1806 42 58 83 255 
3 503 1808 43 59 82 255 
6 503 1810 44 60 83 255 
9 504 1813 45 60 83 255 
12 505 1816 44 59 82 255 
15 505 1818 45 60 83 255 
18 506 1821 47 62 85 255 
21 507 1825 47 62 85 255 
24 508 1829 47 62 85 255 
27 510 1833 44 59 80 255 
30 511 1837 40 55 76 255 
33 511 1840 38 53 74 255 
36 512 1843 33 48 69 255 
39 513 1846 28 43 66 255 
42 514 1849 28 43 66 255 
45 515 1852 26 40 66 255 
48 516 1855 19 33 59 255 
51 516 1858 49 66 96 255 
54 517 1861 109 126 156 255 
57 518 1864 107 127 162 255 
60 518 1865 109 129 164 255 
64 519 1867 113 132 172 255 
67 518 1865 121 140 180 255 
69 518 1863 71 87 121 255 
72 517 1860 37 53 87 255 
75 516 1856 30 41 69 255 
78 515 1853 34 45 73 255 
81 514 1849 30 42 68 255 
84 513 1846 26 38 64 255 
87 512 1842 23 37 63 255 
90 511 1839 23 37 63 255 
92 510 1835 28 42 68 255 
95 509 1831 28 42 68 255 
98 508 1828 31 45 71 255 
101 507 1824 33 47 73 255 
103 506 1821 35 49 75 255 
106 505 1817 34 48 74 255 
109 504 1814 31 45 71 255 
112 503 1810 33 47 73 255 
114 502 1806 39 53 79 255 
117 501 1802 44 58 84 255 
120 500 1798 50 64 90 255 
122 499 1794 54 68 94 255 
125 497 1790 58 72 98 255 
128 496 1786 57 71 97 255 
130 495 1783 54 68 94 255 
133 495 1780 52 66 92 255 
136 494 1778 54 70 93 255 
138 493 1775 61 77 100 255 
141 493 1774 65 80 101 255 
144 493 1773 67 82 103 255 
147 492 1772 64 79 102 255 
150 492 1772 73 88 111 255 
152 492 1772 78 93 116 255 
155 493 1773 75 90 113 255 
158 493 1774 69 83 109 255 
161 493 1775 68 82 108 255 
164 493 1775 73 85 109 255 
167 493 1776 74 86 110 255 
170 494 1777 75 87 113 255 
173 494 1778 77 89 115 255 
176 494 1780 75 87 113 255 
179 495 1781 72 84 110 255 
182 495 1782 70 82 104 255 
185 495 1783 72 84 106 255 
188 496 1786 71 83 105 255 
192 497 1788 72 84 106 255 
195 498 1792 64 79 110 255 
198 499 1798 83 98 129 255 
202 500 1801 108 126 172 255 
206 503 1811 112 130 176 255 
-88 519 1858 110 126 162 255 
-84 516 1845 72 88 124 255 
-80 511 1829 64 80 113 255 
-77 509 1821 64 80 113 255 
-74 507 1815 68 85 115 255 
-71 506 1810 63 80 110 255 
-68 505 1807 64 81 109 255 
-65 504 1804 61 78 106 255 
-62 504 1802 62 79 109 255 
-59 503 1799 59 76 106 255 
-56 502 1797 55 71 104 255 
-53 502 1797 49 65 98 255 
-50 502 1796 50 64 91 255 
-47 502 1795 51 65 92 255 
-44 502 1795 47 61 88 255 
-41 502 1795 44 58 85 255 
-38 502 1795 44 58 84 255 
-35 502 1795 43 57 83 255 
-32 502 1795 43 57 84 255 
-29 502 1796 44 58 85 255 
-26 502 1796 45 59 85 255 
-24 502 1797 43 57 83 255 
-21 503 1798 41 55 81 255 
-18 503 1799 40 54 80 255 
-15 503 1800 39 53 79 255 
-12 504 1801 40 54 80 255 
-9 504 1803 43 57 83 255 
-6 504 1804 47 61 87 255 
-3 505 1805 46 62 87 255 
0 505 1807 47 63 88 255 
3 506 1809 46 62 85 255 
6 506 1811 47 63 86 255 
9 507 1814 46 62 85 255 
12 508 1817 47 63 86 255 
15 509 1820 50 66 91 255 
18 509 1822 48 64 89 255 
21 511 1826 46 62 87 255 
24 512 1830 44 60 85 255 
27 513 1834 42 57 80 255 
30 514 1838 39 54 77 255 
33 515 1841 39 54 77 255 
36 516 1844 37 52 75 255 
39 516 1847 32 47 70 255 
42 517 1850 30 45 68 255 
45 518 1853 28 40 66 255 
48 519 1856 21 33 59 255 
51 519 1858 41 56 87 255 
54 520 1861 107 122 153 255 
57 521 1864 102 122 157 255 
60 521 1865 103 123 158 255 
64 522 1867 107 127 164 255 
67 522 1866 114 134 171 255 
69 521 1863 66 82 116 255 
72 520 1861 33 49 83 255 
75 519 1857 34 45 73 255 
78 518 1853 35 46 74 255 
81 517 1850 34 46 72 255 
84 516 1846 30 42 68 255 
87 515 1843 29 43 69 255 
90 514 1839 26 40 66 255 
92 513 1836 30 42 66 255 
95 512 1832 30 42 66 255 
98 511 1829 31 46 69 255 
101 510 1825 33 48 71 255 
103 509 1822 34 49 72 255 
106 508 1819 34 49 72 255 
109 508 1816 31 45 71 255 
112 507 1813 30 44 70 255 
115 506 1809 34 48 74 255 
117 505 1806 36 50 76 255 
120 504 1802 39 53 79 255 
123 503 1798 45 59 85 255 
125 501 1794 54 68 94 255 
128 500 1790 58 72 98 255 
131 499 1787 56 72 97 255 
133 499 1784 52 68 93 255 
136 498 1781 57 73 96 255 
139 497 1779 58 74 97 255 
141 496 1776 62 78 101 255 
144 496 1775 66 82 105 255 
147 496 1774 63 78 101 255 
150 495 1773 73 88 111 255 
153 495 1773 80 95 118 255 
155 495 1773 76 91 114 255 
158 496 1774 73 85 111 255 
161 496 1775 76 88 114 255 
164 496 1775 80 92 118 255 
167 496 1776 78 90 116 255 
170 496 1776 76 86 113 255 
173 497 1778 80 90 117 255 
176 497 1779 79 89 116 255 
179 498 1781 73 83 110 255 
182 498 1782 70 82 106 255 
185 498 1783 71 83 107 255 
188 499 1786 65 80 103 255 
192 499 1788 67 82 105 255 
195 501 1793 61 77 110 255 
198 502 1798 96 112 145 255 
202 504 1804 115 133 179 255 
206 506 1813 113 131 177 255 
210 509 1823 105 125 176 255 
-88 523 1859 110 126 162 255 
-84 520 1848 68 84 120 255 
-81 516 1834 64 80 113 255 
-77 513 1825 63 79 112 255 
-74 511 1818 67 84 114 255 
-71 510 1813 64 81 111 255 
-68 509 1810 62 79 107 255 
-65 508 1807 56 73 101 255 
-62 507 1804 59 76 106 255 
-59 506 1801 57 74 104 255 
-56 506 1799 52 69 99 255 
-53 506 1798 48 65 95 255 
-50 505 1797 48 62 88 255 
-47 505 1797 50 64 90 255 
-44 505 1797 48 62 88 255 
-41 505 1796 46 60 86 255 
-38 505 1796 44 58 84 255 
-35 505 1796 43 57 83 255 
-32 505 1797 44 58 84 255 
-29 505 1797 44 58 84 255 
-26 506 1798 42 56 82 255 
-24 506 1798 40 54 80 255 
-21 506 1799 38 53 76 255 
-18 506 1800 39 54 77 255 
-15 506 1801 40 55 78 255 
-12 507 1802 42 57 80 255 
-9 507 1803 45 60 83 255 
-6 508 1805 48 63 86 255 
-3 508 1806 49 65 88 255 
0 508 1808 51 67 90 255 
3 509 1809 46 62 85 255 
6 510 1812 47 63 86 255 
9 510 1815 48 64 87 255 
12 511 1818 49 65 88 255 
15 512 1821 54 70 93 255 
18 513 1824 54 70 93 255 
21 514 1827 50 66 89 255 
24 515 1831 45 61 84 255 
27 516 1835 41 56 79 255 
30 517 1839 38 53 76 255 
33 518 1843 38 53 76 255 
36 519 1845 39 54 77 255 
39 520 1848 34 48 74 255 
42 520 1851 31 45 71 255 
45 521 1854 31 43 67 255 
48 522 1856 25 37 61 255 
51 523 1859 37 52 81 255 
54 523 1861 108 123 152 255 
57 524 1864 109 129 164 255 
60 524 1865 110 130 165 255 
64 525 1867 109 129 166 255 
67 525 1866 106 126 163 255 
70 524 1864 57 73 106 255 
72 523 1861 31 47 80 255 
75 522 1858 36 50 77 255 
78 521 1854 34 48 75 255 
81 520 1850 38 50 74 255 
84 519 1847 34 46 70 255 
87 518 1843 32 47 70 255 
90 517 1840 29 44 67 255 
92 516 1836 32 42 67 255 
95 515 1833 33 43 68 255 
98 514 1830 34 46 70 255 
101 513 1826 35 47 71 255 
104 512 1823 34 49 72 255 
106 512 1820 37 52 75 255 
109 511 1817 36 50 76 255 
112 510 1815 35 49 75 255 
115 509 1811 35 49 75 255 
117 509 1809 35 49 75 255 
120 507 1805 35 49 75 255 
123 506 1801 39 53 79 255 
125 505 1797 47 61 87 255 
128 504 1794 54 68 94 255 
131 503 1791 55 71 97 255 
133 502 1787 54 70 96 255 
136 502 1785 52 70 92 255 
139 501 1782 51 69 91 255 
142 500 1780 57 73 96 255 
144 499 1777 64 80 103 255 
147 499 1776 59 75 98 255 
150 499 1775 65 81 104 255 
153 499 1774 73 87 113 255 
155 499 1774 71 85 111 255 
158 499 1774 72 86 112 255 
161 499 1775 75 89 115 255 
164 499 1775 82 94 120 255 
167 499 1776 78 90 116 255 
170 499 1776 74 84 111 255 
173 500 1778 78 88 115 255 
176 500 1779 78 87 116 255 
179 500 1781 74 83 112 255 
182 501 1782 69 83 110 255 
185 501 1783 70 84 111 255 
188 502 1786 63 79 105 255 
192 503 1789 66 82 108 255 
195 504 1794 55 74 107 255 
199 506 1801 97 116 149 255 
202 507 1806 109 130 177 255 
206 510 1816 106 127 174 255 
-88 526 1859 117 133 169 255 
-84 522 1848 70 86 122 255 
-81 520 1838 65 82 112 255 
-78 517 1830 64 81 111 255 
-74 515 1822 63 80 108 255 
-71 513 1816 63 80 108 255 
-68 513 1813 62 77 106 255 
-65 512 1809 54 69 98 255 
-62 511 1806 58 73 102 255 
-59 510 1804 56 71 100 255 
-56 509 1801 51 66 95 255 
-53 509 1800 50 65 94 255 
-50 509 1799 47 62 85 255 
-47 508 1798 47 62 85 255 
-44 508 1798 46 60 86 255 
-41 508 1798 46 60 86 255 
-38 508 1798 44 58 84 255 
-35 508 1798 44 58 84 255 
-32 508 1798 46 61 84 255 
-29 509 1799 44 59 82 255 
-26 509 1799 40 55 78 255 
-24 509 1800 42 57 80 255 
-21 509 1801 45 60 83 255 
-18 509 1801 45 60 83 255 
-15 510 1802 44 59 82 255 
-12 510 1803 44 59 82 255 
-9 510 1804 46 61 84 255 
-6 510 1805 48 63 86 255 
-3 511 1807 45 61 84 255 
0 511 1808 49 65 88 255 
3 512 1810 44 60 83 255 
6 513 1813 43 59 82 255 
9 514 1816 47 63 86 255 
12 514 1819 45 61 84 255 
15 515 1822 47 62 85 255 
18 516 1825 48 63 86 255 
21 517 1829 52 67 90 255 
24 518 1832 47 62 85 255 
27 519 1836 43 58 81 255 
30 520 1840 40 55 78 255 
33 521 1844 40 55 78 255 
36 522 1846 41 56 79 255 
39 523 1849 36 51 74 255 
42 524 1852 32 47 70 255 
45 524 1854 34 44 69 255 
48 525 1857 32 42 67 255 
51 526 1860 34 49 78 255 
54 527 1862 103 118 147 255 
57 527 1864 110 130 165 255 
60 527 1865 114 134 169 255 
64 528 1867 115 135 172 255 
67 528 1866 107 127 164 255 
70 527 1864 55 70 103 255 
72 527 1862 34 49 82 255 
75 525 1858 37 51 78 255 
78 525 1855 33 47 74 255 
81 523 1851 38 50 74 255 
84 522 1847 36 48 72 255 
87 521 1844 33 48 71 255 
90 520 1840 32 47 70 255 
92 519 1837 33 43 68 255 
95 518 1833 34 44 69 255 
98 517 1830 35 47 71 255 
101 517 1827 34 46 70 255 
104 516 1824 33 48 71 255 
106 515 1821 36 51 74 255 
109 514 1818 35 49 75 255 
112 513 1816 35 49 75 255 
115 513 1813 38 50 76 255 
118 512 1811 37 49 75 255 
120 511 1808 37 49 75 255 
123 510 1804 37 49 75 255 
126 509 1801 37 51 77 255 
128 508 1797 43 57 83 255 
131 507 1794 48 64 90 255 
134 506 1791 52 68 94 255 
136 505 1788 52 70 94 255 
139 505 1785 46 64 88 255 
142 504 1783 45 63 87 255 
144 503 1780 50 68 92 255 
147 503 1778 45 63 87 255 
150 502 1777 48 66 90 255 
153 502 1776 58 74 99 255 
156 502 1775 63 79 104 255 
158 502 1775 71 85 112 255 
161 502 1775 73 87 114 255 
164 502 1776 78 92 119 255 
167 502 1776 75 89 116 255 
170 502 1777 72 83 111 255 
173 502 1778 72 83 111 255 
176 503 1779 73 84 112 255 
179 503 1780 71 82 110 255 
182 504 1782 66 80 109 255 
185 504 1783 67 81 110 255 
188 505 1786 62 79 107 255 
192 505 1789 70 87 115 255 
195 507 1794 59 79 114 255 
199 509 1802 100 120 155 255 
203 511 1809 108 129 176 255 
-88 529 1859 115 131 165 255 
-84 526 1850 64 80 114 255 
-81 523 1840 51 66 95 255 
-78 521 1832 52 67 96 255 
-74 519 1825 66 82 108 255 
-71 517 1819 68 84 110 255 
-68 516 1816 64 80 106 255 
-65 515 1812 55 71 97 255 
-62 514 1809 58 74 100 255 
-59 514 1806 52 68 94 255 
-56 513 1803 46 62 88 255 
-53 512 1802 47 63 89 255 
-50 512 1801 48 62 88 255 
-47 512 1799 48 62 88 255 
-44 512 1799 48 62 88 255 
-41 512 1799 50 64 90 255 
-38 512 1799 50 64 90 255 
-35 512 1799 50 64 90 255 
-32 512 1799 50 65 88 255 
-29 512 1799 47 62 85 255 
-26 512 1799 43 58 81 255 
-24 512 1800 49 64 87 255 
-21 512 1801 54 69 92 255 
-18 512 1801 53 68 91 255 
-15 512 1802 49 64 87 255 
-12 513 1803 46 61 84 255 
-9 513 1805 47 62 85 255 
-6 514 1806 50 65 88 255 
-3 514 1808 49 65 88 255 
0 514 1809 53 69 92 255 
3 515 1811 48 64 87 255 
6 516 1814 47 63 86 255 
9 517 1817 51 67 90 255 
12 518 1820 47 63 86 255 
15 518 1823 44 59 82 255 
18 519 1826 44 59 82 255 
21 520 1830 47 62 85 255 
24 522 1834 43 58 81 255 
27 522 1837 43 58 81 255 
30 524 1841 42 57 80 255 
33 525 1845 41 56 79 255 
36 525 1847 40 55 78 255 
39 526 1850 36 51 74 255 
42 527 1853 31 46 69 255 
45 528 1855 37 48 70 255 
48 528 1858 39 50 72 255 
51 529 1860 37 52 81 255 
54 530 1863 99 114 143 255 
57 530 1865 110 130 165 255 
60 531 1866 116 136 171 255 
64 531 1867 125 143 179 255 
67 531 1866 116 134 170 255 
70 530 1864 51 66 99 255 
72 530 1862 34 49 82 255 
75 528 1858 36 47 75 255 
78 528 1855 32 43 71 255 
81 526 1851 36 48 72 255 
84 525 1848 37 49 73 255 
87 524 1844 36 51 74 255 
90 523 1841 37 52 75 255 
92 522 1837 40 52 76 255 
95 521 1834 40 52 76 255 
98 520 1830 41 53 77 255 
101 519 1827 39 51 75 255 
104 519 1825 38 53 76 255 
106 518 1821 40 55 78 255 
109 517 1819 40 54 80 255 
112 517 1817 41 55 81 255 
115 516 1815 42 54 80 255 
118 515 1812 41 53 79 255 
120 514 1809 38 52 78 255 
123 513 1806 36 50 76 255 
126 513 1803 34 48 74 255 
129 512 1800 37 51 77 255 
131 511 1797 44 58 84 255 
134 510 1794 50 64 90 255 
137 509 1791 53 71 95 255 
139 508 1788 51 69 93 255 
142 508 1786 50 67 93 255 
145 507 1783 54 71 97 255 
147 506 1781 50 67 93 255 
150 506 1779 50 67 93 255 
153 505 1778 54 70 96 255 
156 505 1777 58 74 100 255 
159 505 1776 67 81 108 255 
161 505 1776 67 81 108 255 
164 505 1776 71 85 114 255 
167 505 1777 69 83 112 255 
170 505 1777 65 79 108 255 
173 505 1778 65 79 108 255 
176 506 1779 68 79 109 255 
179 506 1780 68 79 109 255 
182 506 1782 66 77 107 255 
185 507 1783 66 77 107 255 
188 508 1787 64 79 110 255 
192 509 1790 76 91 122 255 
195 510 1795 75 93 131 255 
199 512 1803 111 129 167 255 
203 514 1810 114 135 182 255 
-88 531 1858 105 122 152 255 
-84 529 1850 58 75 105 255 
-81 527 1842 38 54 80 255 
-78 524 1834 44 60 86 255 
-74 523 1828 53 69 94 255 
-71 521 1822 58 74 99 255 
-68 520 1819 56 72 97 255 
-65 519 1815 49 65 90 255 
-62 518 1812 51 65 91 255 
-59 517 1808 42 56 82 255 
-56 516 1806 39 53 79 255 
-53 516 1804 42 56 82 255 
-50 515 1802 46 60 87 255 
-47 515 1801 46 60 87 255 
-44 515 1800 47 61 88 255 
-41 515 1800 51 65 92 255 
-38 515 1800 51 65 92 255 
-35 515 1800 50 64 91 255 
-32 515 1800 50 64 90 255 
-29 515 1800 48 62 88 255 
-26 515 1800 43 57 83 255 
-24 515 1800 50 64 90 255 
-21 515 1801 54 68 94 255 
-18 515 1802 52 66 92 255 
-15 515 1802 49 63 89 255 
-12 516 1803 48 62 88 255 
-9 516 1805 49 64 87 255 
-6 517 1806 52 67 90 255 
-3 517 1808 46 62 87 255 
0 518 1810 47 63 88 255 
3 518 1812 43 59 84 255 
6 519 1815 42 58 83 255 
9 520 1818 46 62 87 255 
12 521 1821 44 60 85 255 
15 522 1825 40 56 79 255 
18 523 1828 41 57 80 255 
21 524 1831 46 62 85 255 
24 525 1835 41 57 80 255 
27 526 1838 41 55 81 255 
30 527 1842 40 54 80 255 
33 528 1846 39 54 77 255 
36 529 1848 38 53 76 255 
39 529 1851 34 49 72 255 
42 530 1853 29 44 67 255 
45 531 1856 31 42 64 255 
48 532 1859 34 45 67 255 
51 532 1861 31 48 76 255 
54 533 1863 94 111 139 255 
57 533 1865 108 128 163 255 
61 534 1867 113 133 168 255 
64 534 1868 122 140 176 255 
67 534 1867 111 129 165 255 
70 533 1864 48 63 94 255 
72 532 1862 34 49 80 255 
75 531 1858 35 46 74 255 
78 530 1855 34 45 73 255 
81 530 1852 34 46 70 255 
84 528 1848 37 49 73 255 
87 528 1845 38 50 72 255 
90 526 1841 36 48 70 255 
92 526 1838 34 48 74 255 
95 524 1834 34 48 74 255 
98 524 1831 39 51 77 255 
101 523 1828 39 51 77 255 
104 522 1825 40 52 78 255 
106 521 1822 44 56 82 255 
109 520 1820 45 57 83 255 
112 520 1818 46 58 84 255 
115 519 1815 38 52 78 255 
118 518 1813 35 49 75 255 
120 518 1811 33 47 73 255 
123 517 1808 32 46 72 255 
126 516 1805 29 43 69 255 
129 515 1802 29 43 69 255 
131 514 1799 34 46 72 255 
134 514 1797 37 49 75 255 
137 513 1794 41 57 82 255 
140 512 1792 47 63 88 255 
142 511 1789 46 63 89 255 
145 511 1787 48 65 91 255 
148 510 1784 47 64 90 255 
150 509 1782 49 66 92 255 
153 509 1780 52 68 94 255 
156 509 1779 54 70 96 255 
159 508 1778 61 75 102 255 
161 508 1777 61 75 102 255 
164 508 1777 65 80 109 255 
167 508 1777 65 80 109 255 
170 508 1778 61 76 105 255 
173 508 1779 64 79 108 255 
176 509 1780 67 81 110 255 
179 509 1781 66 80 109 255 
182 509 1782 62 73 103 255 
185 510 1783 60 71 101 255 
188 511 1787 55 70 101 255 
192 512 1791 65 80 111 255 
195 513 1796 76 94 132 255 
199 515 1804 107 125 163 255 
203 517 1811 110 128 176 255 
-84 532 1850 55 72 100 255 
-81 530 1843 48 64 89 255 
-78 528 1837 45 61 86 255 
-75 526 1830 46 62 85 255 
-71 525 1825 55 71 94 255 
-68 524 1821 58 73 96 255 
-65 523 1818 55 70 93 255 
-62 522 1815 55 69 95 255 
-59 521 1811 45 59 85 255 
-56 520 1808 44 58 84 255 
-53 519 1806 48 62 88 255 
-50 519 1804 48 62 89 255 
-47 518 1802 49 63 90 255 
-44 518 1801 51 65 94 255 
-41 518 1800 54 68 97 255 
-38 518 1800 54 68 95 255 
-35 518 1800 52 66 93 255 
-32 518 1800 53 67 93 255 
-29 518 1800 54 68 94 255 
-26 518 1800 47 61 87 255 
-24 518 1801 55 69 95 255 
-21 518 1801 56 70 96 255 
-18 518 1802 53 67 93 255 
-15 519 1803 53 67 93 255 
-12 519 1804 52 66 92 255 
-9 519 1806 51 66 89 255 
-6 520 1807 52 67 90 255 
-3 520 1809 49 65 90 255 
0 521 1811 48 64 89 255 
3 521 1813 44 60 86 255 
6 522 1816 41 57 83 255 
9 523 1819 43 59 85 255 
12 524 1823 42 58 84 255 
15 525 1826 40 56 81 255 
18 526 1829 44 60 85 255 
21 527 1833 46 62 85 255 
24 528 1836 39 55 78 255 
27 529 1839 37 53 78 255 
30 530 1843 37 53 78 255 
33 531 1847 37 53 78 255 
36 532 1849 39 55 80 255 
39 533 1852 36 52 75 255 
42 533 1854 33 49 72 255 
45 534 1857 33 45 67 255 
48 535 1859 33 45 67 255 
51 536 1862 32 49 77 255 
54 536 1864 96 113 141 255 
57 537 1866 113 133 168 255 
61 537 1867 112 132 167 255 
64 537 1868 116 134 170 255 
67 537 1867 98 116 152 255 
70 536 1865 44 59 90 255 
72 535 1862 34 49 80 255 
75 535 1859 37 48 76 255 
78 533 1855 39 50 78 255 
81 533 1852 33 45 69 255 
84 532 1849 35 47 71 255 
87 531 1845 35 47 69 255 
90 530 1842 31 43 65 255 
92 529 1838 30 44 70 255 
95 528 1835 31 45 71 255 
98 527 1831 39 51 77 255 
101 526 1828 43 55 81 255 
104 525 1825 44 56 82 255 
106 524 1822 46 58 84 255 
109 523 1820 46 58 84 255 
112 523 1818 45 57 83 255 
115 522 1816 38 52 78 255 
118 522 1814 34 48 74 255 
120 521 1811 33 47 73 255 
123 520 1809 36 50 76 255 
126 519 1806 39 51 77 255 
129 519 1804 38 50 76 255 
132 518 1801 37 49 75 255 
134 517 1799 37 49 75 255 
137 517 1797 31 45 71 255 
140 516 1794 45 59 85 255 
142 515 1792 45 61 87 255 
145 515 1790 44 60 86 255 
148 514 1787 44 60 86 255 
151 513 1785 49 65 91 255 
153 512 1782 51 65 92 255 
156 512 1780 51 65 92 255 
159 512 1780 56 70 97 255 
162 511 1779 59 73 100 255 
165 511 1779 66 81 110 255 
167 511 1779 67 82 111 255 
170 511 1779 64 79 108 255 
173 511 1779 68 83 112 255 
176 512 1780 72 86 113 255 
179 512 1781 68 82 109 255 
182 512 1782 66 77 107 255 
185 512 1783 63 74 104 255 
188 514 1787 54 69 100 255 
192 515 1791 60 75 106 255 
195 516 1796 79 97 135 255 
199 518 1804 110 128 166 255 
203 521 1812 111 132 179 255 
-81 533 1844 56 71 100 255 
-78 532 1839 53 68 97 255 
-75 530 1834 49 63 89 255 
-71 529 1828 47 61 87 255 
-68 527 1824 56 72 97 255 
-65 527 1821 61 77 102 255 
-62 525 1817 56 72 97 255 
-59 524 1813 50 66 91 255 
-56 523 1810 54 68 94 255 
-53 523 1807 53 67 93 255 
-50 522 1805 52 66 93 255 
-47 521 1803 57 71 98 255 
-44 521 1802 56 70 97 255 
-41 521 1801 55 69 96 255 
-38 521 1800 55 69 95 255 
-35 521 1800 54 68 94 255 
-32 521 1800 54 68 95 255 
-29 521 1800 54 68 95 255 
-26 521 1800 53 67 93 255 
-24 521 1801 53 67 93 255 
-21 521 1802 54 69 92 255 
-18 521 1803 55 70 93 255 
-15 522 1804 53 68 91 255 
-12 522 1805 52 67 90 255 
-9 523 1807 51 65 91 255 
-6 523 1808 50 64 90 255 
-3 524 1811 50 64 90 255 
0 524 1813 51 65 91 255 
3 525 1815 47 62 85 255 
6 526 1818 41 56 79 255 
9 527 1821 40 55 78 255 
12 528 1825 45 60 83 255 
15 529 1828 47 61 87 255 
18 530 1831 45 59 85 255 
21 530 1834 43 57 83 255 
24 531 1837 43 57 83 255 
27 532 1841 40 55 78 255 
30 533 1844 37 52 75 255 
33 534 1848 39 54 77 255 
36 535 1850 39 54 77 255 
39 536 1852 35 49 75 255 
42 536 1854 32 46 72 255 
45 537 1857 34 43 72 255 
48 538 1860 33 42 71 255 
51 538 1862 31 47 72 255 
54 539 1864 102 118 143 255 
57 540 1866 109 128 160 255 
61 540 1867 117 136 168 255 
64 540 1868 113 131 167 255 
67 540 1867 98 116 152 255 
70 539 1865 47 63 89 255 
72 539 1863 32 48 74 255 
75 538 1859 40 52 76 255 
78 537 1856 39 51 75 255 
81 536 1852 32 43 71 255 
84 535 1849 35 46 74 255 
87 534 1846 36 48 72 255 
90 533 1842 32 44 68 255 
92 531 1838 32 44 68 255 
95 531 1835 31 43 67 255 
98 529 1831 37 49 75 255 
101 529 1828 42 54 80 255 
104 528 1825 42 54 80 255 
106 527 1822 43 55 81 255 
109 526 1820 44 56 80 255 
112 526 1818 39 51 75 255 
115 525 1816 37 49 73 255 
118 524 1814 37 49 73 255 
121 524 1812 37 49 75 255 
123 523 1809 36 48 74 255 
126 522 1807 41 53 79 255 
129 522 1804 39 51 77 255 
132 521 1802 41 53 77 255 
134 520 1800 38 50 74 255 
137 520 1798 34 48 75 255 
140 519 1796 37 51 78 255 
143 519 1794 46 60 87 255 
145 518 1791 42 56 83 255 
148 517 1789 44 58 85 255 
151 517 1787 45 59 86 255 
154 516 1785 50 66 92 255 
156 515 1782 54 70 96 255 
159 515 1781 56 72 98 255 
162 514 1780 55 71 97 255 
165 514 1780 59 75 100 255 
168 514 1780 65 81 106 255 
170 514 1780 71 87 112 255 
173 515 1781 69 85 110 255 
176 515 1781 74 90 115 255 
179 515 1782 70 86 111 255 
182 516 1784 61 78 104 255 
185 516 1785 55 72 98 255 
189 517 1789 43 64 93 255 
192 518 1793 52 73 102 255 
196 520 1799 76 100 136 255 
200 523 1810 99 123 159 255 
203 525 1817 101 124 166 255 
-81 537 1846 55 70 99 255 
-78 535 1841 54 69 98 255 
-75 534 1836 51 67 92 255 
-72 532 1831 47 63 88 255 
-68 532 1828 54 70 95 255 
-65 530 1824 59 75 100 255 
-62 529 1820 58 74 99 255 
-59 528 1816 53 69 94 255 
-56 527 1812 56 70 96 255 
-53 526 1809 54 68 94 255 
-50 525 1806 57 71 98 255 
-47 525 1805 60 74 101 255 
-44 524 1803 58 72 98 255 
-41 524 1802 56 70 96 255 
-38 524 1801 55 69 95 255 
-35 523 1800 54 68 94 255 
-32 523 1800 55 69 96 255 
-29 523 1800 55 69 96 255 
-27 524 1801 57 71 97 255 
-24 524 1801 56 70 96 255 
-21 524 1802 56 70 96 255 
-18 524 1803 54 68 94 255 
-15 525 1804 52 66 92 255 
-12 525 1806 51 65 91 255 
-9 525 1807 53 67 93 255 
-6 526 1809 54 68 94 255 
-3 527 1812 50 66 91 255 
0 528 1814 50 66 91 255 
3 528 1817 47 63 86 255 
6 529 1820 42 58 81 255 
9 530 1823 40 56 79 255 
12 531 1826 44 60 83 255 
15 532 1830 46 62 87 255 
18 533 1833 44 60 85 255 
21 534 1836 41 57 80 255 
24 535 1839 44 60 83 255 
27 536 1842 43 58 81 255 
30 537 1845 39 54 77 255 
33 538 1849 39 54 75 255 
36 538 1851 37 52 73 255 
39 539 1853 33 48 71 255 
42 539 1855 31 46 69 255 
45 540 1858 33 45 71 255 
48 541 1860 32 44 70 255 
51 541 1862 35 51 74 255 
54 542 1864 108 124 147 255 
57 543 1866 115 136 167 255 
61 543 1867 117 138 169 255 
64 543 1868 112 132 165 255 
67 543 1868 100 120 153 255 
70 543 1866 47 63 88 255 
72 542 1863 36 52 77 255 
75 541 1860 40 52 76 255 
78 540 1856 39 51 75 255 
81 539 1853 35 46 74 255 
84 538 1849 37 48 76 255 
87 537 1846 35 50 73 255 
90 536 1842 33 48 71 255 
92 535 1839 36 48 72 255 
95 534 1835 36 48 72 255 
98 533 1832 40 52 78 255 
101 531 1828 42 54 80 255 
104 531 1825 40 52 78 255 
106 530 1822 41 53 79 255 
109 529 1820 43 55 79 255 
112 529 1818 41 53 77 255 
115 528 1816 40 52 76 255 
118 527 1814 38 50 74 255 
121 527 1812 38 50 76 255 
123 526 1809 38 50 76 255 
126 525 1807 42 54 80 255 
129 525 1805 40 52 78 255 
132 524 1803 42 54 78 255 
134 524 1801 40 52 76 255 
137 523 1799 36 50 76 255 
140 522 1797 40 54 80 255 
143 522 1795 47 61 87 255 
145 521 1793 44 58 84 255 
148 520 1790 46 60 86 255 
151 520 1788 48 62 88 255 
154 519 1786 54 68 94 255 
156 519 1784 56 70 96 255 
159 518 1783 56 72 97 255 
162 518 1782 56 72 97 255 
165 518 1782 59 75 100 255 
